ply
format ascii 1.0
element vertex 771
property float x
property float y
property float z
property uchar red
property uchar green
property uchar blue
end_header
-2.01000195654485 6.89988597440519 2.76424593383573 73 73 73
-1.78815528762666 7.077555417996 2.8975209203869 76 76 76
1.95948952190252 6.90549353473573 2.86150202945711 50 50 50
-0.881171149044966 7.27085177128934 3.27472047899151 149 149 149
-1.57955928664011 6.96515258863961 3.01928349106974 107 107 107
-0.304260910862478 7.03811439221634 3.39173600740157 72 72 72
-0.379304858499776 6.98221036825205 3.38831564453373 100 100 100
0.477364219365332 7.12997760319235 3.3807543599715 65 65 65
-0.727017553111117 7.1901966902476 3.32117148529497 98 98 98
0.827498367574597 7.18079123350616 3.323229404854 98 98 98
-0.692796903734999 7.16362723286886 3.32339209454028 117 117 117
-1.9840244023973 7.07418105299238 2.795548282854 126 126 126
-0.862720318984166 7.22110624796671 3.28776418388447 99 99 99
-1.38728070391877 7.06027662780423 3.11124843064392 75 75 75
-0.0749093105177331 7.21589986119636 3.40525344708447 89 89 89
-0.315732311763692 7.16074931329427 3.39496195641346 118 118 118
0.337996396150752 7.19050592324057 3.39916395880182 67 67 67
-2.14254179926746 6.93265786544669 2.66689581809809 80 80 80
2.67043498499057 6.78478594551617 2.26665440615505 85 85 85
1.53819529884176 7.01608878139841 3.06669931789448 68 68 68
2.41291223367999 6.91164975575244 2.48521940401112 94 94 94
1.50748116025229 7.07659655423989 3.09925083986468 75 75 75
0.609269270053876 7.0370413400094 3.37105369945592 105 105 105
1.45676433047218 7.02341698798057 3.11759276820522 70 70 70
-1.1360678895109 7.1647892357117 3.19494550030664 97 97 97
-0.875842650451295 7.17838912501299 3.28139829622743 124 124 124
-0.467512462854207 7.21155774821428 3.3587055487028 75 75 75
2.67001361545476 6.83218591217697 2.2658482157708 84 84 84
0.0909026117600445 6.98330762692611 3.4143079088216 62 62 62
0.953852781716329 7.36911640273612 3.28305282682589 105 105 105
-0.746435462467128 6.98677034690011 3.32699082971837 142 142 142
-1.43005837458886 7.00771100814503 3.08492982834983 75 75 75
1.14479558509859 7.19139650516662 3.20224869934721 93 93 93
-0.271375716918101 7.2676388498575 3.39130045548191 187 187 187
2.32920852815963 6.96313738425886 2.58685183324934 73 73 73
-1.17189224311699 7.46611801005789 3.18290845438738 106 106 106
-1.20475326378206 7.18013041695911 3.17288559548552 140 140 140
2.68278948882022 6.85938429541267 2.25181294337059 39 39 39
-1.06679021853167 7.18073957946635 3.22468909188665 96 96 96
-1.41492376946543 7.34798155612636 3.07752686238368 216 216 216
2.59266984050209 6.87577980135507 2.33963231531724 55 55 55
-0.0169482732734021 7.37517708871923 3.39576663325832 67 67 67
-0.747257449664198 7.31714486903189 3.30805192699848 129 129 129
-1.60634340961145 7.14060115093865 2.9889544555881 117 117 117
-1.704934037749 7.1727348764831 2.92954015866634 118 118 118
-1.18252303272217 7.23016161804411 3.18491095835538 82 82 82
2.47622425657159 7.02559374961113 2.44900532038713 54 54 54
1.3910360574931 7.16066218223607 3.14962485900821 66 66 66
-1.38608847793919 7.3306780092408 3.09141870896153 110 110 110
-1.034424963352 7.26924075928005 3.24320049668619 136 136 136
1.17646016931021 7.2581991858243 3.21823597797997 71 71 71
-1.86232230119195 7.15887946572442 2.84387869100348 75 75 75
-0.229897857055829 7.3113550673863 3.39970507778364 118 118 118
0.98367629795355 7.31454973398622 3.27792585753016 63 63 63
-1.54741620640354 7.22707490152815 2.98489658622636 81 81 81
2.49077164359403 7.06631838831533 2.4220763631233 92 92 92
0.369043577327449 7.39539989931891 3.37427806846299 125 125 125
1.97004906695271 7.19245258318142 2.82651981579617 57 57 57
0.983121875771665 7.41945400648291 3.26443464030681 64 64 64
0.341555785801284 7.33567216453264 3.3866072844551 60 60 60
0.0575363063591452 7.30227407644189 3.39809408487751 82 82 82
-0.812786440598359 7.28765094846923 3.298475080331 124 124 124
0.710637436453751 7.50334344874418 3.33801941117619 68 68 68
1.36993665599123 7.26832601243199 3.14259171245912 119 119 119
0.696343263539783 7.61921299550337 3.32649607232515 107 107 107
-0.45050726985103 7.41460049875198 3.35983129842817 69 69 69
1.52339988687683 7.2358448063678 3.03959439014878 81 81 81
-0.97521278102407 7.390014996335 3.24885301214772 107 107 107
-0.23666598575146 7.50239890943671 3.38188214493896 112 112 112
2.22078609140546 7.25851543756005 2.63417859338347 123 123 123
0.059230674185064 7.36884246307149 3.39974092155549 77 77 77
2.61080800887052 7.02371384798973 2.3196418182892 68 68 68
-0.670651111818996 7.67112260774088 3.30895965383028 142 142 142
2.59853908774343 6.93120888191587 2.31826967040492 79 79 79
-0.183061985043369 7.41117591673766 3.39192568236302 132 132 132
2.41053437892949 7.15545250830895 2.48719122600155 47 47 47
0.156564578369345 7.46925952717695 3.39689637529498 122 122 122
-1.0108350936439 7.35533854093394 3.23545611081265 161 161 161
-0.604679682224917 7.4521354072195 3.34171564407348 115 115 115
-0.934557249996023 7.52952366386597 3.26326820485521 136 136 136
-1.71833124381304 7.42607153933698 2.92009659569016 70 70 70
-1.13350848541533 7.43313991839186 3.18983053905536 121 121 121
-1.70300176554717 7.33393796146359 2.92982036610855 115 115 115
1.64202172779666 7.37733751443941 3.00602435498983 95 95 95
-0.374618591919385 7.34753462623213 3.3762135494757 88 88 88
1.69568099812435 7.34288585975928 2.97598173697783 63 63 63
-0.353097314556531 7.64014110817634 3.3723971508271 106 106 106
-0.146442478773376 7.38354874609079 3.38175014982617 95 95 95
-0.338301799525639 7.49506558019944 3.37645030109355 110 110 110
2.66408350941674 7.06045476457927 2.2578571151211 79 79 79
-1.2205408030757 7.31602943058455 3.17008231667905 97 97 97
0.509994056410769 7.67060512026638 3.35490204483026 90 90 90
-1.12522134578273 7.60571667331336 3.17716830686947 91 91 91
2.64385533456164 7.08130624031354 2.2701108175503 50 50 50
-0.83814912656832 7.5196235626369 3.27562385829446 87 87 87
-2.26966571888522 7.07423275940509 2.55674542535728 43 43 43
-1.06389785309854 7.32419507638967 3.20351563023155 106 106 106
-1.33813318016369 7.33190426434591 3.11675773641567 95 95 95
-0.65753143791399 7.39352799074213 3.32615158324815 87 87 87
-1.90813628188439 7.42708069672807 2.80129976167543 66 66 66
-1.66826920157024 7.33499440547298 2.94768241153598 62 62 62
-0.788270217462502 7.61833506684715 3.29375424733607 116 116 116
2.2459773920491 7.16711349721957 2.65030912243368 166 166 166
1.01152334040576 7.59731622927072 3.25553286790336 118 118 118
-1.73685003750123 7.13892813591155 2.9204925880245 52 52 52
0.455239944406761 7.34037014304145 3.36432001118862 134 134 134
-1.45272601150672 7.22760214942533 3.05037881795092 83 83 83
-1.3297911103419 7.57994664831921 3.09709213966964 107 107 107
1.49086233679589 7.35409233710279 3.0885515895524 111 111 111
-0.986872771280833 7.28308162957064 3.25880053697803 85 85 85
-1.64796622003263 7.25711325210862 2.97920847471319 93 93 93
-0.144649153889162 7.53295049590883 3.3863728104714 115 115 115
-1.76282479937769 7.40773794995259 2.88222574256993 105 105 105
-2.18937386920777 7.28645107795654 2.59880798467404 91 91 91
0.963820517976558 7.64722119382941 3.26755249133794 118 118 118
-0.854985791421474 7.41657518765588 3.29965892583171 106 106 106
-1.23164177538401 7.41571075708788 3.15338311832215 132 132 132
-2.10153398397215 7.26162382766473 2.70538844460698 59 59 59
-0.974050671449047 7.52244344340248 3.2442902203046 80 80 80
2.62377004475033 7.12549683729364 2.32430119855495 50 50 50
-0.616862409636977 7.68014731404013 3.3248656243034 159 159 159
-2.121601896113 7.14496169294245 2.67165885297054 74 74 74
0.426504580628679 7.64354927439529 3.3691121267084 72 72 72
2.68466474389309 7.09415161040383 2.24951223668279 46 46 46
-1.58972966850771 7.51056746008059 2.98476076186067 118 118 118
-1.61226869087755 7.37116156971975 2.9828626373505 79 79 79
-0.0333080100911694 7.55284403575664 3.39055836237656 93 93 93
2.41724071356098 7.10430407896446 2.50180154980021 46 46 46
-0.291348408012622 7.5478791857088 3.38174967967097 198 198 198
1.13102837477845 7.61816157548109 3.2082673920423 83 83 83
-1.73036325412234 7.27461122858585 2.91746777382627 57 57 57
-1.61817315426796 7.48292824344819 2.98031289519457 81 81 81
2.24030038604528 7.20953474235545 2.63691063070265 170 170 170
-1.29335493642626 7.62618046679454 3.11964944781121 162 162 162
-0.208286872437754 7.43231577071619 3.39368329632097 99 99 99
0.853637075040068 7.71847294186879 3.30365792083878 81 81 81
-0.177768138089919 7.71196118079131 3.36799390565745 162 162 162
0.575991234203433 7.7632793318811 3.34100364138389 85 85 85
0.547296210545618 7.64117233910695 3.34421144902704 103 103 103
-0.966262463898197 7.66462539493999 3.24501021429859 113 113 113
0.819673327947382 7.76095029260986 3.30002751806728 113 113 113
-2.00863877501958 7.50305182967414 2.71063808409364 115 115 115
1.81807820345603 7.17989257178706 2.93331679336661 61 61 61
-1.49477866019775 7.5890697187529 3.02976917980092 104 104 104
-1.07066632593202 7.65664549761621 3.20812860233537 122 122 122
-1.06883202088018 7.71074968742466 3.20663719390068 119 119 119
-0.684599698512301 7.46826110208279 3.31526007614766 234 234 234
-0.312482721042253 7.78743535246577 3.36482048955412 128 128 128
0.711564184371181 7.33644278849391 3.33903061170508 113 113 113
-1.28115981633101 7.66799787774159 3.12351202448824 111 111 111
1.59991590403842 7.56313031257877 3.02491145052292 99 99 99
2.02600142103554 7.48156753203354 2.79685014962328 92 92 92
-1.1317229661953 7.72455130846136 3.17887194892758 108 108 108
-0.785567635682657 7.48094185542882 3.28852007772871 122 122 122
-1.79113410635675 7.43773510855308 2.88246218562973 139 139 139
-2.29314846494486 7.40338356607084 2.51967568051251 57 57 57
0.552623946011989 7.46358063413379 3.35322225901142 54 54 54
0.349746612660992 7.66876412893234 3.36801361028233 129 129 129
-1.36268087024859 7.56039892163551 3.08763017577318 155 155 155
-0.0765380555066388 7.81674046367787 3.3746132479 104 104 104
1.45628974459881 7.65980491413053 3.084351892326 117 117 117
-2.00351823963554 7.40499885826372 2.7361097609444 70 70 70
2.22710932528336 7.43326846608131 2.64977099897564 131 131 131
1.74371174764814 7.50981636042789 2.95699171815861 92 92 92
0.0107556275511104 7.48919133372394 3.39334161253446 101 101 101
-1.73699117199941 7.50752487945952 2.89953300495538 114 114 114
0.380070672915133 7.75867341343363 3.35480860199674 75 75 75
-0.898554759800974 7.65487616953354 3.25131322313631 113 113 113
2.32218422337915 7.31030331291867 2.56251092916565 92 92 92
1.60312324187443 7.36911722540585 3.03220260220148 69 69 69
-0.230655898560468 7.82932566788677 3.37388582202152 126 126 126
-1.80591759174755 7.54392803605932 2.85317206043384 104 104 104
1.66423142268244 7.49170543138467 3.00418166119696 113 113 113
-0.477238366289793 7.69744562173397 3.34635936401914 101 101 101
-2.14011338449973 7.45193489682275 2.64218157644979 77 77 77
2.56022844335793 7.22304484550859 2.35777126786685 99 99 99
1.33997122911842 7.34704291913115 3.14178863655087 66 66 66
-0.627724712650251 7.77951401658919 3.32157905983339 145 145 145
-0.28617141805853 7.82004732250709 3.35875750155326 125 125 125
1.02437463021835 7.74148187085497 3.23882872553613 123 123 123
-0.939986970623399 7.63034099099898 3.2419236943161 129 129 129
2.69051404938452 7.25671508527624 2.25557992594395 43 43 43
-0.668023805759305 7.51393370828386 3.31926673368621 119 119 119
-1.52127923167186 7.57293358101396 3.00313123887654 107 107 107
0.492776270034301 7.50996368415193 3.36090827698337 79 79 79
0.433943235658847 7.71417837663047 3.35607499757753 64 64 64
-0.457577129237433 7.93007220452326 3.34088221059505 116 116 116
1.52086177612717 7.62661442911005 3.05892176642064 106 106 106
2.64701524363727 7.28625634925832 2.26307578464454 45 45 45
1.55863646547293 7.6486751335909 3.05888031688401 62 62 62
1.66594228916602 7.6253015558165 2.9893642627319 110 110 110
0.823790049934189 7.7834262136785 3.28514276853735 116 116 116
-1.16675617620737 7.72066826233642 3.16989645550253 101 101 101
-0.0609876576107884 7.80587374495935 3.37537023260669 110 110 110
-1.87069948011665 7.38412793100111 2.81508808629732 110 110 110
-1.2222623173204 7.82554923286331 3.14065013678215 176 176 176
2.17603456201863 7.53428289520824 2.67864973106248 99 99 99
1.08715205490676 7.85111399360781 3.21664404253288 106 106 106
2.56492070353077 7.29493593858761 2.34808808952156 96 96 96
-1.25970827191948 7.75583807656369 3.12921375274007 114 114 114
2.23908628349528 7.47148750776114 2.63239810949192 77 77 77
-2.0827112302821 7.43058389303085 2.68291614660806 63 63 63
0.729449846503049 7.91523908476734 3.30980008867865 111 111 111
-1.00082338539692 7.864870236945 3.21582404757497 168 168 168
-0.484692400366761 7.77045789849503 3.33584983839516 118 118 118
-0.269436257258156 7.77619171601493 3.36933995687588 105 105 105
-0.898324039105313 7.78474975479872 3.26156207479612 114 114 114
-0.110759900332312 7.89201162008259 3.37124416498263 103 103 103
2.42395832172306 7.42806473053672 2.47491680310349 59 59 59
2.03489094038494 7.67996964085785 2.76285215055528 59 59 59
1.14387981720817 7.82812212338023 3.20093782653223 75 75 75
2.14426938475248 7.53647865423512 2.6891454980717 52 52 52
1.14748205973857 7.8912717948258 3.19668298169091 93 93 93
2.26883503435268 7.43465333651368 2.60217962255005 93 93 93
-0.906757234965976 7.81673666886914 3.24880312631653 154 154 154
-1.18449527783096 7.75185656928535 3.16464805489761 113 113 113
0.481079213626374 7.8336863753136 3.34609142012464 86 86 86
-0.425567917428177 7.87910531207984 3.34309393039671 123 123 123
-0.821524278537962 7.96002917368187 3.2611588715195 129 129 129
1.27288129165415 7.80989761076279 3.15774677324056 86 86 86
-0.0406351606566787 8.05641387817043 3.36856693928473 105 105 105
1.31352746612847 7.89377968669038 3.13520175837823 125 125 125
-2.11169491490713 7.63794002211978 2.65185843965455 134 134 134
-0.327988497744774 7.95442594331359 3.35016685455053 146 146 146
-0.178020391645068 8.01954415818576 3.36426638937206 98 98 98
-1.66380691040858 7.74090822775084 2.94050211920913 139 139 139
-0.795180530579253 7.87194464419326 3.2719870284279 115 115 115
1.02855612076662 7.80394098101255 3.26375251667795 117 117 117
-1.12703752917965 7.86431031833684 3.17998205018254 100 100 100
0.214089275251277 8.03837587650129 3.36292335268128 84 84 84
-0.969380204827986 7.84840038963074 3.2166064316322 127 127 127
-1.78760109373367 7.60111774419758 2.86996956767969 141 141 141
0.240793286958363 7.88917702436436 3.36751342650121 98 98 98
-1.42547765861427 7.74433504848286 3.06226705686787 98 98 98
1.39631826483547 7.77232474802011 3.1157931845361 116 116 116
-0.756822276238069 7.86530144882561 3.26380978157374 165 165 165
-2.10422922478326 7.74985727930628 2.64016540233874 121 121 121
1.56788278374583 7.78196115250979 3.02451151596805 79 79 79
0.516868027624303 7.87859989149377 3.34218270368325 124 124 124
2.23971968754538 7.67304460475493 2.62121251955705 60 60 60
0.756645084499226 7.95043575970865 3.30666231881046 70 70 70
0.117901709318275 7.8912494756629 3.37789584322429 114 114 114
-1.39660498365999 7.89881257475232 3.06954997366927 169 169 169
1.21866169587072 7.76609550549443 3.18377514550856 119 119 119
-1.21260442435808 7.77439213302579 3.14834459522712 165 165 165
-1.48690764855491 7.79938123366337 3.0186531857912 121 121 121
-1.48089284397013 7.91691596376868 3.02444627705487 117 117 117
-1.80774079009739 7.84289720578501 2.86108772416245 98 98 98
2.29012692687754 7.65878295154495 2.60662383497834 76 76 76
-0.433310004224607 8.10632342066567 3.33776483333775 125 125 125
-1.79781554285657 7.75964871431553 2.84866443389931 106 106 106
0.0583055294647698 7.92042980941456 3.37886930670141 81 81 81
-0.969368279168286 7.96311854893874 3.21793733301028 109 109 109
-1.06821569116311 7.92675585362685 3.19803583245841 126 126 126
-1.54897314307146 7.77356727228374 2.99724097720317 73 73 73
1.21652422547428 7.9977097529234 3.16425702259515 66 66 66
-0.108267661070817 8.01360320127358 3.36784989443419 117 117 117
-1.74823199729906 7.73556561268377 2.87907214111179 110 110 110
-2.06172357193065 7.5587220411705 2.69050100777266 62 62 62
-2.32061242128382 7.61197177105767 2.47928949637015 67 67 67
1.62196490607794 7.86206134015203 3.00685209887204 67 67 67
-1.4664506722056 7.85842206958566 2.99678446814732 128 128 128
-0.642779915964065 7.99372866630497 3.29952711396511 118 118 118
-0.617165285978372 7.93700365222576 3.31783966348062 155 155 155
-1.7465745501709 7.84977999305004 2.88624434289468 76 76 76
0.0143437616714857 7.95679947524123 3.37386146982697 107 107 107
-1.38835506737455 7.93869657430902 3.06373599753273 162 162 162
-1.08786469679891 7.95154561096234 3.19702374339648 208 208 208
-1.57748520593721 7.82197269112167 2.9829068212983 137 137 137
-2.28023129151498 7.60308541289075 2.51368089578025 93 93 93
-0.353890345933494 7.98778938345338 3.3497879333359 125 125 125
-1.34309049336332 7.81483168452855 3.09307641623992 143 143 143
0.909314468215673 8.14106395052532 3.25818504227082 96 96 96
1.26400681101651 8.01626711710444 3.13715266238746 113 113 113
1.37374612447464 7.99517247052882 3.10279647846333 104 104 104
1.23044756748635 7.95029218773053 3.16068877094156 118 118 118
0.201198897352549 7.91873185032295 3.37229519464291 69 69 69
-0.178904172411447 8.07535027470311 3.35688294988358 112 112 112
1.5902603737116 7.82475891380189 3.03060222211897 90 90 90
1.9122356848055 7.81420412072323 2.83639765997414 100 100 100
-0.340405513923449 8.14871293756334 3.34951145455361 255 255 255
1.13582567865709 8.15449498228065 3.19140309895231 174 174 174
-1.88746010743907 7.8076034081084 2.80390631778955 68 68 68
-0.0480702191090629 8.16611874985483 3.36440247874067 254 254 254
1.72596759311071 7.90937930553653 2.94682242584546 70 70 70
-2.00978097115358 7.70597922355967 2.72190127971195 115 115 115
-0.0357171580386195 8.31224049695191 3.36243946843029 128 128 128
-0.34809020006719 8.10436304294333 3.35505788639007 150 150 150
-1.77064737520813 7.76274956238559 2.87412882532885 142 142 142
-1.43505741599051 8.00319428011949 3.04381230203954 110 110 110
2.05509865876425 7.90576199835232 2.72782553509277 107 107 107
-0.900527169369799 7.98352257395949 3.24252432976427 166 166 166
-1.54441493101774 7.82325255060454 2.994867002354 78 78 78
1.7101247689367 8.00413073566531 2.95050365383323 171 171 171
0.414763783221381 8.17733088434738 3.34543829196173 203 203 203
-0.136646153707295 8.28191502748895 3.34620158573816 179 179 179
-0.490613269387514 8.14607931519073 3.32753322287391 255 255 255
1.80982229137018 7.99410398532353 2.89357538754424 110 110 110
1.20977284484639 8.11926736370609 3.16948923612373 68 68 68
-0.371679989769729 8.285613153861 3.32334333403454 170 170 170
-0.725421226779803 8.19384848063652 3.27889726842197 188 188 188
0.394659555500319 8.099097175832 3.34946234028885 80 80 80
-2.25718184096592 7.71725437509022 2.51890422463402 65 65 65
1.61470446562807 7.73998960466775 3.02733289278759 57 57 57
1.50535402411633 8.05840369308638 3.0526491160359 76 76 76
-2.13477530780125 7.6223297829832 2.63455441829633 79 79 79
1.05762466498741 8.20800124578582 3.21560147042629 78 78 78
-1.17261579888657 7.91843110624229 3.15843013372153 129 129 129
0.618810725447718 8.22500931222893 3.31467310835529 86 86 86
1.11535698088102 8.13486044036206 3.20436469753687 111 111 111
0.213258529596382 8.21886168676491 3.35730079140125 97 97 97
2.19010317001872 7.85624033782031 2.64730133051606 67 67 67
2.46580624220015 7.68361809261779 2.42346027966783 103 103 103
1.6599927932766 7.97318744986458 2.97787893272353 123 123 123
-2.12142236019936 7.85018897994458 2.62725851475411 98 98 98
-2.02960576232104 7.83455850639624 2.6880632424226 80 80 80
0.163683435937493 8.25906326513066 3.38137146344766 103 103 103
-1.44311517746536 7.94147990520889 3.07022564126791 154 154 154
0.754557311876186 7.87645686588526 3.30555246390638 67 67 67
-0.308019023274667 8.26287446725715 3.34179394674702 147 147 147
1.21436185309225 8.18767137000534 3.15839608142552 87 87 87
0.897568764451935 8.21354940093172 3.24947309994233 89 89 89
1.41967137583286 8.14709841833399 3.08086211902957 85 85 85
0.355981576640073 8.26784991297287 3.33788940491256 117 117 117
-2.17780171777887 7.77198621971162 2.58849213280871 71 71 71
2.54742091637307 7.60427875483068 2.33466804071515 88 88 88
-0.819562714200694 8.24631906852033 3.25326125617537 130 130 130
0.589675476883712 8.30015190564032 3.33235090802432 131 131 131
2.3566619372182 7.82315008183933 2.52689656263721 58 58 58
2.34686006918671 7.87124979623646 2.53464288601511 101 101 101
1.9771920710304 7.95529586359181 2.78882166230608 95 95 95
-0.755044596939334 8.23579436108801 3.26481178312252 157 157 157
1.05416236798719 8.29502931491085 3.2085653470646 63 63 63
-1.06080102637639 8.24193680904113 3.18233938467833 161 161 161
-2.06384215869843 8.02138336957088 2.6581015697333 105 105 105
2.26577240435726 7.76777002045066 2.58794618881579 150 150 150
0.404139425225193 8.32520515124551 3.34008445480915 85 85 85
0.583297718345085 8.30797328214666 3.34365993869896 136 136 136
-2.11591302500732 7.92099565216742 2.63500661233802 104 104 104
-1.80032620453838 8.00440838708429 2.83992450154817 114 114 114
-2.25775651093228 7.91381506696666 2.52347380760401 67 67 67
1.40037585716969 8.24691359083455 3.09835662491235 116 116 116
1.2098367488474 8.26069630474022 3.14279752184516 99 99 99
-1.94561429732441 8.02432163875978 2.75541358933043 87 87 87
2.66027120462372 7.59765886456991 2.22689019333082 50 50 50
-1.38078967176429 8.24580058594209 3.05196691191398 195 195 195
1.66528815381153 8.11554494625792 2.96873237544112 166 166 166
2.53691875989014 7.79258547015727 2.36833921459821 97 97 97
2.25008311238523 7.85285850288987 2.60166183084366 83 83 83
1.10671706238854 8.23550458314898 3.20003421698787 128 128 128
2.59534174779595 7.75244697494664 2.2798605800175 49 49 49
1.80238513408315 8.13818866121256 2.8905217252206 113 113 113
2.63259150933383 7.69875729455751 2.29143688489277 97 97 97
0.850994913549036 8.29763396139239 3.2649370114891 110 110 110
2.13017309141159 8.10057966152978 2.68466299564385 94 94 94
-1.35376774723961 8.19823401643965 3.07495758186282 169 169 169
1.69769460525992 8.19127253371788 2.94675128090292 59 59 59
-1.84368992910306 8.12582001064476 2.8033339449425 142 142 142
2.58309725160208 7.72905931358298 2.29277167874218 77 77 77
0.312150638504739 8.34846357150732 3.36314044600431 108 108 108
-1.83685210149952 8.00033054392496 2.82259155316694 121 121 121
2.16327730661834 8.1082449304562 2.63630036702389 120 120 120
-0.981794102953279 8.31284951625038 3.19959209423072 198 198 198
2.69077796020944 7.80120581301789 2.19441981970986 56 56 56
-1.91051191519817 8.15208464249639 2.76583431774813 109 109 109
1.40783374229876 8.18819977519593 3.08326556782308 117 117 117
-1.35213745282103 8.15099157095573 3.0689144251188 122 122 122
2.24500752538489 8.13961368672543 2.61600534928266 99 99 99
-1.41810560445464 8.20545658437164 3.03947926301817 158 158 158
-2.32900807302619 8.05102733941393 2.44949467317706 126 126 126
2.61518843787817 7.7778554853594 2.27705356044461 96 96 96
1.91930671331019 8.11169539211597 2.82102097789166 98 98 98
-1.79623478656819 8.17455091433996 2.83901619961872 102 102 102
-1.4831188813797 8.14771541652348 3.01100446523517 131 131 131
1.3415670530674 8.21042787891346 3.11540479582396 122 122 122
1.03324117867207 8.2646463133005 3.21769906740031 125 125 125
-1.26841220003182 8.25838535685147 3.10946108027813 122 122 122
-2.1505197775698 8.09314402826747 2.60067271767282 137 137 137
2.39089947341113 8.0846913056579 2.46762273956445 68 68 68
2.59663420783675 7.89406541243151 2.27300362647438 64 64 64
2.55280767513435 8.03304535922186 2.30970250420654 49 49 49
2.02899954377318 8.15808553160487 2.74749437356356 99 99 99
2.59942279007643 7.80324394453517 2.27812346053229 47 47 47
2.62683119901582 7.91331200486067 2.25443184498171 53 53 53
2.30663559452285 8.124987701927 2.55590792539494 88 88 88
2.59997500554004 7.92338298612204 2.25966212023689 94 94 94
2.59720634650732 7.95796099980623 2.2870288320743 45 45 45
2.66985231694678 7.98322386689486 2.19856235408553 96 96 96
2.59895314899186 8.02687567948508 2.28113548790985 46 46 46
2.61361407576169 8.04439222014124 2.26956961113163 97 97 97
-0.193363768825416 4.95730032950494 3.48934403011469 81 81 81
0.544396981924899 5.81299144749074 3.4290403976435 100 100 100
-0.558622803643224 5.44989597639228 3.43785527729538 68 68 68
1.51814406318106 5.23838691077264 3.16038928082252 66 66 66
-1.34229517700453 4.98619911599247 3.20347564130873 71 71 71
-1.45311381304268 5.98152079939181 3.11591132679784 68 68 68
-1.04038159325449 5.96158801226057 3.29844989226773 94 94 94
-2.05148127257215 6.06501097398376 2.76760435302547 63 63 63
-1.01423397030181 6.08126980083644 3.30744291457823 73 73 73
-2.17720290226216 5.947453558122 2.67336159494837 99 99 99
1.26636640310793 5.63147930936738 3.25436836399179 66 66 66
-2.13335525784873 5.68938390737139 2.72896194514108 72 72 72
1.11368864310987 5.29314883826809 3.31319232377279 101 101 101
-0.454492124491176 5.71914721541017 3.42896924152128 79 79 79
-0.665046471358711 5.80520392842249 3.38361911957869 70 70 70
0.764323017107739 5.77537752620667 3.3956848742223 88 88 88
-1.01524873032071 5.86701746992026 3.29755009104056 67 67 67
-0.22136223198697 5.52738396135637 3.45474059984226 61 61 61
-1.73186327372416 6.54557783236096 2.95510718026854 64 64 64
-1.79790750659315 5.37059613279293 2.99268647626656 92 92 92
1.5637372325012 5.43118788886813 3.12124394607421 86 86 86
-1.67640813844831 6.07771982591944 2.99771612939515 129 129 129
-0.652389672805393 5.27003566811941 3.42019572587726 72 72 72
-0.362022717906509 5.50287100167067 3.45281443968443 64 64 64
0.316755653147117 5.45345501932987 3.46940650567061 56 56 56
0.421233601185414 5.03428970392878 3.41617904794013 48 48 48
0.0645819526179918 5.77528847856674 3.46432161707765 71 71 71
-1.63659604764214 6.06823771595918 3.02344474432299 71 71 71
-2.13670506578033 5.6098497842204 2.72820272177786 55 55 55
1.21332005175032 5.73186980239164 3.2587439302763 57 57 57
-1.27336932544249 5.19334339737344 3.22549677693722 85 85 85
2.25529103199692 5.70031030177406 2.69803790352707 54 54 54
-0.366809809222381 5.6011100348311 3.44837586578069 59 59 59
0.622882017702568 5.77467009653728 3.39694895692823 85 85 85
-1.13974876014544 6.12217680274592 3.24981981551396 84 84 84
0.105009692393746 5.11577758062807 3.49776506300071 56 56 56
0.936568684943631 5.03581398392985 3.37930386169586 46 46 46
2.43154761037209 4.83846281157733 2.55879983056004 49 49 49
1.53229668791119 5.11993759605283 3.18408172310364 48 48 48
-1.04988652039446 5.82523836689782 3.29678486228901 79 79 79
1.40209731205899 5.55616096714689 3.20952833462158 64 64 64
0.864134523256577 5.27807148998638 3.39075986981452 88 88 88
0.231489595983752 5.94035614271365 3.45725976072745 66 66 66
-1.89743136536122 5.9976096269151 2.88232818976992 60 60 60
0.31842578412189 5.56301159834028 3.46502779550613 55 55 55
1.28911239701902 5.46719124744054 3.24514489379268 57 57 57
1.06032273069277 5.84585173322346 3.30467718311133 70 70 70
0.779173880539834 5.36542228053182 3.40523450096719 99 99 99
0.261541431273375 5.48895507889042 3.47548764147167 85 85 85
0.474037089866119 6.17785568595656 3.42087730602789 57 57 57
-1.08526857253356 5.6488924442666 3.28418101599639 69 69 69
-1.40263990785136 4.97536023239021 3.19404946257637 43 43 43
1.47465208334283 5.20592065211676 3.18319288536696 87 87 87
-1.82162866663135 5.71269671610615 2.93646508093528 59 59 59
-0.0587182430194477 5.43765216630103 3.47711089657464 59 59 59
-1.00156233380373 5.78330566496159 3.29779299681956 92 92 92
-0.197737186971644 5.84136421435834 3.45660637776547 82 82 82
-1.09526083814898 5.86905601255037 3.27498128445695 60 60 60
1.58547116722771 5.93060955240993 3.12192208796514 97 97 97
0.550717292761319 5.83491184900994 3.43098976848699 111 111 111
-0.912640041368435 5.46072725535264 3.35803640913365 63 63 63
-0.825216398673305 5.85541870358892 3.34480509484542 60 60 60
1.13654933578019 5.38314684234917 3.30525659883719 93 93 93
1.57149629209236 5.27818766962041 3.13662577180483 89 89 89
0.841089020125819 6.07707719056661 3.3731201164708 107 107 107
-1.1385147675611 5.69113500018582 3.279216741152 99 99 99
0.869651847203843 5.87360414704486 3.36162615797082 66 66 66
0.840696028945121 5.4765534828399 3.38426145498268 65 65 65
-2.33218189990953 5.80950947724545 2.54545249853867 77 77 77
-0.569712268818243 5.46634225192903 3.43824457237194 67 67 67
2.44603391260015 4.76028750834527 2.57385620971478 36 36 36
1.35724636766127 6.05186582701014 3.17211749659293 70 70 70
-1.48659259662369 6.07204479241974 3.12206861171871 69 69 69
2.20001239590654 5.1162318394067 2.77789730322808 44 44 44
1.55450787989026 6.51201696097538 3.08177175629708 72 72 72
-2.21680892033907 5.66198344999559 2.58658105602216 58 58 58
-2.40844968331958 5.63135537942722 2.48384733986249 54 54 54
-0.123921540728148 5.53226777685815 3.47781784643527 64 64 64
1.26272663397076 5.36453432294358 3.26276292604056 58 58 58
-0.684418332636661 5.70936359928666 3.39521739045005 80 80 80
0.714822730194694 6.4673530200206 3.37318435121696 91 91 91
0.0716900982369673 5.87749255233697 3.45783808596687 119 119 119
-0.636275196399898 5.41569347203318 3.41885272550849 64 64 64
-0.482269254151113 5.81488139771446 3.43033607799012 89 89 89
-2.05488154059549 5.94265692805896 2.75462676704047 55 55 55
0.540968209833347 6.18532262944341 3.39996315610784 91 91 91
-0.81942916689412 5.91601278177863 3.35425569783535 102 102 102
-0.994908648618289 6.26713072227487 3.28689990343759 74 74 74
-0.0541481389517031 6.64112207135452 3.43447638659566 100 100 100
0.355805675963648 5.37781404530594 3.46740961476249 85 85 85
-1.77076657413338 6.55642965434082 2.93059235634592 129 129 129
1.25501977386936 5.78839822086389 3.2458659254443 92 92 92
-1.53710151064796 5.95909387090746 3.07544968065598 98 98 98
0.850479630021878 6.54682640345618 3.34327492579233 84 84 84
-0.491101990431718 5.37810343546592 3.4180597626434 55 55 55
1.49877835075167 6.58434310323442 3.12767068923306 106 106 106
0.829279380736 5.93679508511743 3.37142888000708 103 103 103
-2.38683333807343 5.20218092093058 2.52713916804163 87 87 87
1.03502759541628 5.56156229368547 3.32845430537203 129 129 129
-1.77316502746568 6.0624717606598 2.95417953915236 61 61 61
-2.27723688187446 5.99613817114361 2.57660808368425 53 53 53
-2.14805870987338 5.95625841392309 2.70584906709488 70 70 70
-1.51996377028337 6.64160502629507 3.05578887220903 87 87 87
-2.03952428616749 6.34913452011569 2.74128469101762 136 136 136
1.62130424015136 6.61765206287757 3.05709479507292 101 101 101
-0.333506608848344 6.54667114549401 3.40939359424933 86 86 86
2.25278840204247 6.40448333229298 2.67379764661443 82 82 82
0.970176449344082 6.6375833843805 3.3088249076225 56 56 56
-1.7898429753133 6.34449686181171 2.93000826944039 101 101 101
2.39242976949223 6.33587452936952 2.55191538756718 68 68 68
-0.756677193691735 6.61664639143673 3.3536441235468 86 86 86
1.45500490248266 6.67004654286213 3.12997205242419 136 136 136
-0.254342010994386 6.53030968915856 3.40786970225076 81 81 81
-1.02353083789443 6.36104346238099 3.27431822747564 66 66 66
-2.26574233101762 6.21313517870754 2.58414347864984 38 38 38
-0.501313828416198 6.40899137389331 3.39855551901804 119 119 119
1.31901257117179 6.47322361886642 3.19858562193772 78 78 78
-0.721523320563172 6.72241845576331 3.33896377345752 94 94 94
1.66417369019196 6.10837281792321 3.0632886229798 77 77 77
-0.486090676774208 6.85184342817892 3.38093049353226 91 91 91
-1.06600582796245 6.42118982759246 3.25100776478668 102 102 102
1.24314654602883 6.60942355691721 3.2179891240641 109 109 109
-0.461070504837599 6.5409668503957 3.39662768529588 149 149 149
-1.82476388960583 6.38716228395115 2.90827229672339 60 60 60
0.552470089389685 6.87835077007233 3.38393930998605 68 68 68
-0.840648728549742 6.40289455912553 3.28822939621116 94 94 94
0.301610759995342 6.75717990188235 3.41977255003787 98 98 98
-0.423526802545237 6.43882986145702 3.39918554583444 104 104 104
0.935007906654472 6.36943987120043 3.31795318586484 72 72 72
0.740054282625761 5.95417543068103 3.38723377381209 74 74 74
-0.343924137720399 6.80219132450983 3.40119323721841 79 79 79
-0.0358040105987628 6.86383718853945 3.41933698866042 98 98 98
1.63575313388294 5.97203867774566 3.07217969471512 64 64 64
-0.920733911005903 6.29666816335773 3.31659635992817 78 78 78
-2.38297356784989 6.38445681601079 2.46383708139647 53 53 53
0.6618948560925 6.69277343079982 3.37242603893778 114 114 114
1.61432183299656 6.48936278092657 3.06907336504424 110 110 110
-1.70694681543977 6.71454438378155 2.96200376427656 112 112 112
0.444232376476734 6.40893638261248 3.41100148951353 51 51 51
-2.0021680626746 6.63332106067781 2.78653779478286 63 63 63
-1.12994703722789 6.73498604646605 3.21542736202469 128 128 128
-2.10507729622522 6.63515833281653 2.68969044828183 77 77 77
-0.627549611883102 6.88179151499124 3.35455734499965 97 97 97
1.32611992574551 6.19353851851866 3.20895405794382 85 85 85
0.207633988837721 6.31208485100784 3.43312588203865 103 103 103
-0.197081680749084 6.80221982591433 3.41569946887078 112 112 112
-0.271804322625206 6.46168246847943 3.42355456358201 80 80 80
0.221501820155729 6.63583790630309 3.42399864040661 103 103 103
1.17870803596282 6.69148904924168 3.23804154545849 102 102 102
1.53792736736329 6.29827129257258 3.10164807716863 67 67 67
-0.999975233419372 6.79266432695364 3.26213310743177 65 65 65
0.757743467531307 6.05896700450497 3.38093998593082 65 65 65
2.42190825354808 6.37064671327398 2.5330493944004 110 110 110
-0.759163895509609 6.51241394836979 3.34128687517154 98 98 98
-0.342527809673405 6.53098637906708 3.36967965146882 88 88 88
1.42601932127023 6.74701064184671 3.12826276693579 76 76 76
-0.761281298718358 6.33996172407851 3.34939827173808 98 98 98
1.40022278638946 6.46546542955376 3.1608300876109 95 95 95
-1.08757999402242 6.80394972020681 3.23272366799615 81 81 81
-1.08019945816025 6.66676724571863 3.25096498240946 69 69 69
-1.7422358283656 6.35479824722548 2.96845769795196 68 68 68
0.172166425802536 6.68232383307454 3.42473952098213 59 59 59
0.570297151448861 6.41341450500591 3.40040790478983 83 83 83
1.59431871396744 6.74030092052906 3.05768321403776 84 84 84
1.48009530577856 6.2154636759713 3.13902411843099 95 95 95
-1.95618329514333 6.60425997306613 2.80662296455193 82 82 82
1.22064102430067 6.34610208673646 3.23874000661242 114 114 114
-0.518414848120449 6.86471173483751 3.37576208582942 95 95 95
-0.796133172626418 6.39925344621621 3.3418312191942 82 82 82
-0.0127295683583014 6.72483061906338 3.43283570885293 83 83 83
-0.998568826461976 6.64224150891119 3.26313482926554 61 61 61
-0.548420320582652 6.43899845319388 3.33916111442709 68 68 68
0.314796730766601 6.85355116995461 3.36695858734242 77 77 77
1.4292428215922 6.77921662815482 3.10930179341431 96 96 96
0.378647602642393 6.86421566078887 3.39913893605385 111 111 111
0.499312185431579 6.87942634150965 3.39145519247051 100 100 100
1.49721069766013 6.72171575227696 3.09939226680363 85 85 85
-0.310402896674123 6.97923708077319 3.4163770804909 77 77 77
0.921857592709103 6.83662095549237 3.30864274708072 106 106 106
1.6817341910902 7.00884885047304 3.01452006915839 85 85 85
-0.7701851009441 6.96679903751226 3.3287066041278 112 112 112
-1.67327108484454 6.99986238509651 2.94553188793258 86 86 86
1.47902819855707 6.77703602254262 3.11022257128489 99 99 99
-1.82834490876797 6.88987223450804 2.87559631427264 71 71 71
2.25121106034452 6.74973189217494 2.64555978313764 107 107 107
-0.00804731843442364 7.02930066747162 3.42095627316664 44 44 44
-0.270609976679137 6.93501722138349 3.40077262400989 104 104 104
-0.939923283674519 7.09178731416471 3.26526349546534 94 94 94
0.376207297963635 6.95089847080367 3.40266886020902 108 108 108
-1.02459569300182 7.06681025865436 3.25878995751743 128 128 128
0.31543099425774 7.00602911196133 3.39081458909174 96 96 96
0.258109024836778 7.18365052841831 3.40125670993417 99 99 99
-0.31755170987754 6.90519898544296 3.39712624687184 70 70 70
2.66759248414756 6.70685102467213 2.26968759321424 78 78 78
-0.225084151575381 7.30505979068536 3.39228493816678 111 111 111
-1.01278740141076 7.19466397127711 3.24794141423386 150 150 150
-0.482138268184697 7.06672783415676 3.34872956610429 111 111 111
0.937809902073645 7.1165649874916 3.28790737375293 112 112 112
-0.372020507570992 6.94757479238379 3.37876494900065 108 108 108
2.26133622035603 6.91101877648052 2.63791070887018 79 79 79
-1.26599281735541 7.06758172929791 3.15735787242837 95 95 95
1.23056175927497 7.07793089114598 3.20803731336824 110 110 110
1.5233131794028 6.81905069577689 3.10925900511173 80 80 80
0.471590682504515 7.12398823548419 3.39142136681099 72 72 72
-0.660369236142478 7.27024339908762 3.32419972219886 96 96 96
-1.21998715803445 7.31968997428972 3.15883526960585 114 114 114
-1.95980366580607 6.93137298937785 2.79114551843484 67 67 67
-1.57882336667862 7.27881999599165 3.00563342539588 125 125 125
1.51237295019678 6.95315207751536 3.10475919841651 135 135 135
0.371671391788987 7.04021643431418 3.39743733585058 114 114 114
1.30691584511934 7.05118423268206 3.1809254566848 74 74 74
2.21655701010984 6.97037836165399 2.66996595631552 83 83 83
-0.453976855646801 7.34015374640737 3.36264243749079 85 85 85
0.978723000519894 7.154207034542 3.26747641993519 94 94 94
1.81821371817047 6.83967428742491 2.91812028356482 119 119 119
-1.18063800517876 7.27682807919257 3.18278217382251 112 112 112
1.08840899535667 7.08515818456485 3.26653397680802 95 95 95
1.18292428292932 7.08516259949652 3.22368728558529 78 78 78
-0.571165775668864 6.96623427979239 3.36037123657125 102 102 102
-1.11472469495198 7.13939849039028 3.20310766999787 143 143 143
-0.223936277983316 7.21877780214385 3.35644919086314 98 98 98
-1.67026965674475 7.12829800327528 2.95854553408161 47 47 47
2.62390664983305 6.79217550513394 2.32574031160694 45 45 45
-0.315520129191722 7.22092819597352 3.37054208501402 89 89 89
0.695668327055318 7.14031516670661 3.34291859236411 112 112 112
1.99342741899325 6.83190134946224 2.83644142593204 55 55 55
-1.40530986991679 7.28394199244446 3.09347220947854 128 128 128
-1.23007810737219 7.22285071400878 3.17484481928342 113 113 113
-0.482667927481926 6.94981822812693 3.37996603609618 89 89 89
-1.68679839712772 7.22277003040123 2.97345207235616 77 77 77
0.678504266446292 6.98719630899518 3.34880932006403 120 120 120
0.28147309382733 7.3281518737436 3.38962122685681 119 119 119
-0.107036972661534 7.4181023871928 3.39064798554812 122 122 122
2.65510968547639 6.95620718691049 2.27802756183884 46 46 46
-1.38838566043561 7.47384902001594 3.09056337943651 123 123 123
-1.49608271816587 7.32150569787687 3.03978761718537 95 95 95
-0.512277533079908 7.61709345006506 3.33940493403929 146 146 146
-1.58969317041449 7.21032955389545 2.99011173969984 96 96 96
-1.00914284523534 7.41098947065375 3.22608631499885 241 241 241
0.929074104511038 7.30483555326942 3.28817933729631 110 110 110
-0.10920478803585 7.26474397766586 3.40411491359055 109 109 109
1.02792804541351 7.64276077955935 3.24873384221545 86 86 86
-0.202928463365567 7.53529730052528 3.38407961326154 248 248 248
-0.659756110335935 7.53808625028218 3.3364468628297 109 109 109
1.25138458556833 7.21312524738707 3.19038137093417 74 74 74
1.69201778927139 7.2146700003099 3.00382008886214 82 82 82
-0.967427053148447 7.47639887227764 3.24859370518314 129 129 129
1.60539879475916 7.30991257986315 3.03480990505719 74 74 74
2.64528751851825 6.7156420332663 2.29517018432528 42 42 42
-1.05551354047305 7.5563025906822 3.23078763081953 105 105 105
2.24286885380328 6.87453906563047 2.66698123368607 167 167 167
-0.637388336413406 7.68067357402397 3.3167264295967 120 120 120
2.51298901348362 7.10207606235888 2.41617591719999 60 60 60
1.67232364612715 7.54948962899189 2.98679859628679 93 93 93
-1.33335473804072 7.50250304468036 3.1116065928209 108 108 108
-1.8224400685842 7.35715071158459 2.84277016411672 86 86 86
-1.09919173897299 7.75199241033023 3.20906527817513 231 231 231
-1.92219530036693 7.42280938852386 2.79891180042121 73 73 73
-1.29962597004248 7.27193662387557 3.1328364465569 100 100 100
0.773765641609742 7.32129002119364 3.30541152627583 93 93 93
-0.576005244042874 7.63304677552254 3.33319546918668 101 101 101
1.51652275056172 7.19271545095376 3.07859109733962 79 79 79
0.429039359075494 7.72528837680632 3.36050176841198 67 67 67
-1.52282114902127 7.10090635959774 3.04497220801617 121 121 121
2.07116372540617 7.4491729357232 2.76992100733291 63 63 63
2.65432711540154 7.17697610775979 2.2718411158797 38 38 38
-0.782940179110777 7.49383320572064 3.29608359462056 113 113 113
1.34223024461046 7.36674610547159 3.15775821948341 68 68 68
-1.15067373817896 7.72807136687733 3.17657262286754 121 121 121
-2.1960804146024 7.12782520560992 2.59890868328365 78 78 78
-1.15919043765445 7.44289930791763 3.18154440907268 114 114 114
1.301154834332 7.21881354904365 3.16086680559424 93 93 93
-0.901516865681218 7.57118960025583 3.25327481618663 121 121 121
-1.14227414631663 7.25433469713715 3.19702133887477 136 136 136
1.58375067455282 7.45841853908051 3.04645237336557 91 91 91
-1.80597258971589 7.76042216302429 2.85595269651811 97 97 97
-1.05491757827482 7.67719177005714 3.20320131724851 130 130 130
-1.69987438852421 7.1685341339977 2.93992643648869 106 106 106
-0.251827006067521 7.49358643425628 3.3882442634885 124 124 124
-0.682185456109872 7.71950972827151 3.3089431273086 116 116 116
0.211819514242379 7.57629948298021 3.38442310684996 71 71 71
-0.0896078514839883 7.55176188321178 3.37924415908625 149 149 149
0.425321426157607 7.83832821778424 3.35556858229524 119 119 119
0.0611013279203877 7.88510929538538 3.34173298466634 95 95 95
-2.11328890914559 7.23345295110588 2.6733558942117 88 88 88
-1.05251212269127 7.457229616798 3.21510954049234 95 95 95
-0.196952001510192 7.87166717735282 3.35994154208896 119 119 119
-1.70826826947939 7.31265595345442 2.95191457210239 116 116 116
0.236589926619832 7.58412634226587 3.38493497823742 74 74 74
0.77084748975465 7.94916364891079 3.29961579384795 67 67 67
-0.15350536823157 7.963521850149 3.38031282476443 150 150 150
-1.66259274841616 7.34667667897578 2.9442892806778 65 65 65
0.127678873925199 8.02955382048441 3.35916894664824 119 119 119
-1.68354974500839 7.45627687051356 2.9335076931281 111 111 111
1.59326642699428 7.22201774869339 3.04941191861647 72 72 72
-2.31183295583761 7.22865983601178 2.49837615559775 81 81 81
1.46525797782243 7.78947633251457 3.07555337736289 109 109 109
-1.3273663504842 7.58475451566301 3.11249785651581 117 117 117
-0.436284538030651 7.82123661604023 3.3510709668533 126 126 126
-0.976570053325765 7.64979720445325 3.23423866679944 93 93 93
2.68064693021184 7.35207307843266 2.24255397543585 43 43 43
1.99167784585924 7.56339697909529 2.81209533849784 66 66 66
-0.958298816706038 7.81073011256818 3.25622801665691 131 131 131
1.99597390720802 7.80921256459648 2.7929386923172 51 51 51
1.01051764218848 7.8929171862974 3.24219379797452 85 85 85
2.13407161133687 7.37064194221569 2.71481164660839 64 64 64
-2.33262090004688 7.40992850372035 2.48292278789616 65 65 65
0.518587294194296 7.89542557424935 3.33668635953169 117 117 117
-0.128208216225618 8.08391139836181 3.36516503388445 169 169 169
1.27064020970984 7.89252666920832 3.1472892181976 93 93 93
0.636194165884323 7.73998114441603 3.30590448235116 103 103 103
-0.573716440002815 7.82485537534017 3.3230093267709 134 134 134
-1.38387298651645 7.82488664910929 3.07959300651521 148 148 148
-1.04910984796901 7.91766968355147 3.20080738894834 136 136 136
2.23502343812577 7.61345110435061 2.61700128377242 74 74 74
-0.0788567837315177 8.2152835517193 3.35913059258925 115 115 115
-1.54679334216298 7.89550063232084 2.98769094530019 109 109 109
0.818773479168416 7.77445532214784 3.29447175431375 115 115 115
-1.00144417135744 7.69489090764489 3.22964660571298 144 144 144
0.69702751990244 8.06306474201133 3.30152302838941 90 90 90
2.64666042120787 7.09437462171503 2.30348563946833 77 77 77
-0.3132130979414 7.67466672588627 3.37042766514695 120 120 120
-1.7803041217209 7.36776941148767 2.87144633580938 109 109 109
1.74809961743754 7.73992157236048 2.93851539955118 97 97 97
0.214841624281226 7.81803402073852 3.37665583139538 58 58 58
-0.456219978038869 7.47944288387969 3.39320876991733 95 95 95
2.59941707806631 7.25075226702213 2.31577117865232 83 83 83
-1.59205153701317 7.72521336444348 2.97708591956426 113 113 113
1.31776218125536 7.81875378797137 3.1324651138032 104 104 104
0.722759209189657 7.98332260027898 3.29914170658093 122 122 122
-0.515314261949449 7.95604020244514 3.32829312002729 136 136 136
-0.289483450341021 8.01200861505206 3.36806735788349 121 121 121
0.127893243144124 8.16459180130726 3.36058898548493 230 230 230
2.16697519068261 6.92631862004659 2.6924082497665 71 71 71
1.80885638012257 7.94252438462065 2.88355531504647 198 198 198
2.25056272519929 7.35824893535654 2.62677053111641 160 160 160
1.678638595974 7.62993608056225 2.98829388786002 109 109 109
2.28403440438762 7.63572816433978 2.58439536029277 87 87 87
0.0816249100096379 8.22801114240353 3.36031337154041 96 96 96
1.56826090148629 7.9255961178078 3.01680920133273 56 56 56
2.17730172652044 7.5904410771963 2.68768075995029 115 115 115
0.522360742584257 8.13202523744152 3.33362536716123 96 96 96
-0.698091247085234 8.07237428518008 3.28096158132579 111 111 111
-0.948569061459042 8.20735291575549 3.21031343311531 161 161 161
-1.04692320153892 8.04188767386911 3.19783873485246 165 165 165
-0.562036969135918 7.4698258768746 3.33326109975833 157 157 157
2.59816989792151 7.55488098620437 2.29165030172149 50 50 50
0.858954862138622 8.18852040276414 3.26570102597473 180 180 180
1.77786284306824 7.94289356317405 2.922675294343 97 97 97
1.14012277370018 8.11077503414513 3.17593285432509 108 108 108
0.278525005203844 8.31291597045454 3.34904794453708 54 54 54
-1.45315171427016 7.7922375937718 3.03223938780332 157 157 157
0.55801272877601 8.17603601105666 3.32926074375184 199 199 199
0.705572833387815 8.13521612983575 3.29871066088478 91 91 91
-2.34513106747798 7.62833190578159 2.44308938891538 109 109 109
0.0784011858405251 8.12741798546276 3.36474903229147 107 107 107
-1.19970786949596 8.14983588006332 3.13622713784144 189 189 189
-0.147952125794396 7.85959543337982 3.37733049484052 153 153 153
1.84309293352314 7.98544624070189 2.87147330526604 61 61 61
1.73683731989639 8.04212396233604 2.92933761701462 85 85 85
-0.0443776692558135 8.04746714276285 3.3637511684052 105 105 105
-0.231026253470834 8.04239497421455 3.35868696131251 157 157 157
0.197057386706608 8.13349015778644 3.36206712146084 86 86 86
1.04505730970338 8.12151090904122 3.21862518131153 75 75 75
2.43226676170056 7.83019033147986 2.44845478724377 51 51 51
-1.68969749375317 7.79844282347464 2.91536456877962 82 82 82
1.44490486304 8.2281791616084 3.07740219291232 108 108 108
0.156820034233619 8.24916801188769 3.35892231858517 97 97 97
0.398536006208345 8.22896060938703 3.3391434356005 81 81 81
0.514208342486936 8.235015924037 3.33041522476505 106 106 106
0.235696795351029 8.27872754177755 3.33995516993202 92 92 92
-1.00247701583717 8.0925173919725 3.20938708423185 255 255 255
1.25581500087248 8.14007628246989 3.13701852666559 199 199 199
0.703930681558185 8.236687648217 3.2982890156575 90 90 90
-0.95846056509995 7.97134051448009 3.22437066669321 140 140 140
1.56762900134268 8.1184338215321 3.02508422250431 83 83 83
0.391164632971598 8.12232269532444 3.34617690695659 89 89 89
-0.729403012873717 8.23699996890671 3.27283867566984 141 141 141
-0.955701695343388 8.05501903615286 3.23134101736142 179 179 179
1.63953315358232 8.16254846117124 2.99121776219499 92 92 92
0.598925972672759 7.70523685697195 3.3363442868975 90 90 90
